2.58457 3.84 -1.49934 50 50 50
1.49755 -34.0086 -5 50 50 50
6.04197 -0.2 -1.61001 50 50 50
5.12 0.713692 -0.419634 50 50 50
0.0278047 -0.2 -3.20692 50 50 50
1.22166 0.147475 -5 50 50 50
0 1.77246 -6.19323 50 50 50
4.95304 -0.2 -1.74999 50 50 50
2.5672 3.84 -1.48081 50 50 50
6.45102 -1.57271 -5 50 50 50
5.12 31.9367 -1.76754 50 50 50
5.28206 3.84 -0.694211 50 50 50
4.79272 3.84 -4.23029 50 50 50
1.73513 3.84 -0.491591 50 50 50
5.12 3.22428 -0.406879 50 50 50
-1.96658 8.06689 -5 50 50 50
0.562015 3.84 -7.60506 50 50 50
0 -66.3482 -10.2576 50 50 50
3.98551 3.74421 -5 50 50 50
-14.1298 6.6611 -5 50 50 50
0.48471 3.84 -0.539597 50 50 50
-0.971395 5.55738 -5 50 50 50
2.67773 3.84 -1.41822 50 50 50
2.5622 3.84 -1.48764 50 50 50
2.67528 3.84 -1.37728 50 50 50
5.12 0.803542 -3.76956 50 50 50
0 3.59109 -5.01083 50 50 50
0 0.588141 -1.97388 50 50 50
-1.60563 3.84 -5.50966 50 50 50
5.2278 3.84 -14.2526 50 50 50
2.01257 -0.2 -3.75182 50 50 50
5.12 -0.718591 -1.54388 50 50 50
5.00499 33.622 -5 50 50 50
0 -4.93558 -5.29743 50 50 50
0 -0.528778 -1.49076 50 50 50
0 37.9171 -8.89288 50 50 50
2.56447 3.84 -1.49019 50 50 50
2.58687 3.84 -1.49654 50 50 50
2.58694 3.84 -1.51341 50 50 50
2.55171 0.78067 -5 50 50 50
2.45325 3.84 -1.451 50 50 50
3.82875 3.84 -4.61486 50 50 50
0 4.47757 -3.82282 50 50 50
-0.395048 -0.2 -4.44169 50 50 50
2.49195 -0.2 -0.479807 50 50 50
0.613911 -0.597518 -5 50 50 50
2.63877 3.66565 -5 50 50 50
5.44472 -0.2 -0.792432 50 50 50
0 38.8823 -13.4433 50 50 50
-0.208261 3.84 -2.29813 50 50 50
-0.953076 3.3158 -5 50 50 50
-4.44089e-16 0.975279 -0.397914 50 50 50
1.71868 -0.2 -3.71881 50 50 50
2.59948 3.84 -1.44259 50 50 50
-1.96821 2.78643 -5 50 50 50
5.12 13.1281 -9.04188 50 50 50
0.0352926 -0.2 -3.88397 50 50 50
3.86132 -0.32846 -5 50 50 50
3.53906 3.84 -4.6728 50 50 50
2.55699 3.84 -1.50994 50 50 50
5.12 -0.0529749 -1.36841 50 50 50
2.36451 -0.2 -8.1539 50 50 50
3.6561 -0.0456781 -5 50 50 50
0 3.47401 -1.26215 50 50 50
0 0.295541 -3.82799 50 50 50
0.338438 3.71577 -5 50 50 50
-0.267018 -0.2 -6.84797 50 50 50
1.74069 -0.2 -1.2777 50 50 50
0 3.98128 -4.84998 50 50 50
5.12 -2.25689 -8.32054 50 50 50
-0.726693 3.84 -4.54354 50 50 50
5.25833 1.43342 -5 50 50 50
2.5505 3.84 -1.41365 50 50 50
-0.335094 3.84 -7.02909 50 50 50
2.53149 3.84 -1.52249 50 50 50
2.55904 3.84 -1.49304 50 50 50
1.22747 3.84 -1.70738 50 50 50
5.88765 2.54123 -5 50 50 50
0 2.10118 -3.05228 50 50 50
5.12 2.50393 -4.79317 50 50 50
0 10.3956 -35.5051 50 50 50
5.12 5.03852 -1.80262 50 50 50
4.80975 90.7084 -5 50 50 50
1.06683 -0.844218 -5 50 50 50
2.58314 3.84 -1.4641 50 50 50
5.12 -5.1657 -3.00007 50 50 50
3.09095 -0.2 -1.20255 50 50 50
2.57949 -0.2 -1.73658 50 50 50
2.09144 -0.2 -0.614439 50 50 50
0 2.07708 -1.14936 50 50 50
5.12 16.6267 -8.47993 50 50 50
3.0954 -3.1383 -5 50 50 50
5.12 -0.215863 -7.57293 50 50 50
6.70755 -0.191296 -5 50 50 50
2.84428 3.84 -1.3446 50 50 50
3.06217 4.73677 -5 50 50 50
0 -1.32237 -4.60459 50 50 50
2.56028 3.84 -1.4997 50 50 50
11.1946 -0.2 -0.601541 50 50 50
0 -0.0280709 -2.85674 50 50 50
0 2.46367 -0.292398 50 50 50
-0.977133 3.84 -8.92792 50 50 50
0.621 3.84 -4.95028 50 50 50
5.48476 -0.2 -0.911631 50 50 50
5.12 2.72853 -3.53453 50 50 50
4.8472 -0.2 -1.95501 50 50 50
4.37154 3.84 -2.96619 50 50 50
5.12 2.85441 -4.09671 50 50 50
2.7846 -0.2 -3.97715 50 50 50
2.50826 3.84 -1.22557 50 50 50
5.12 3.72121 -2.3587 50 50 50
0 1.64332 -3.44117 50 50 50
2.55906 3.84 -1.5003 50 50 50
2.24644 10.4638 -5 50 50 50
3.7288 -0.2 -0.21968 50 50 50
5.12 4.58063 -3.34678 50 50 50
2.51688 3.84 -1.44919 50 50 50
0 22.8774 -5.47307 50 50 50
2.56081 3.84 -1.51061 50 50 50
2.54036 3.84 -1.59073 50 50 50
0 5.96116 -3.34122 50 50 50
1.94741 53.4182 -5 50 50 50
2.61801 3.84 -1.51188 50 50 50
5.12 -2.98644 -9.21464 50 50 50
3.55946 -7.89411 -5 50 50 50
0 3.82293 -1.45714 50 50 50
1.51663 3.84 -2.40939 50 50 50
4.14258 64.4508 -5 50 50 50
3.20324 3.50474 -5 50 50 50
4.1191 2.90443 -5 50 50 50
2.58738 3.84 -1.5559 50 50 50
0 0.0848604 -2.08094 50 50 50
0 1.70265 -3.05424 50 50 50
5.12 -0.462992 -0.703824 50 50 50
2.58372 3.84 -1.56096 50 50 50
1.23088 3.84 -4.99029 50 50 50
4.55199 -0.2 -0.314918 50 50 50
3.8878 2.64589 -5 50 50 50
5.12 -27.4081 -18.0837 50 50 50
0.787749 -0.2 -1.09615 50 50 50
2.5567 7.62657 -5 50 50 50
-10.2787 4.92174 -5 50 50 50
-0.43706 -0.2 -5.40149 50 50 50
2.46675 3.84 -1.38465 50 50 50
0 1.31286 -2.51634 50 50 50
0.39272 -0.2 -3.05735 50 50 50
2.55456 3.84 -1.46971 50 50 50
2.53605 3.84 -1.48296 50 50 50
0 46.9609 -16.0708 50 50 50
0.777746 4.26663 -5 50 50 50
1.91137 -0.2 -1.45072 50 50 50
5.08595 -0.2 -2.44917 50 50 50
2.52877 3.84 -1.38871 50 50 50
5.2064 8.53276 -5 50 50 50
5.11766 -0.2 -6.8526 50 50 50
5.12 2.38146 -0.559778 50 50 50
-4.13283 -2.33567 -5 50 50 50
1.34625 3.84 -4.05991 50 50 50
2.55592 3.84 -1.49115 50 50 50
2.5577 3.84 -1.4823 50 50 50
5.12 3.28294 -0.809366 50 50 50
-3.20015 -0.2 -2.71379 50 50 50
0 0.145694 -4.4059 50 50 50
2.58277 3.84 -1.4924 50 50 50
2.57247 -0.2 -1.01567 50 50 50
2.32872 -0.2 -0.408996 50 50 50
0 1.36077 -1.30054 50 50 50
2.51253 3.84 -1.49405 50 50 50
0 3.86023 -0.552114 50 50 50
5.22057 3.84 -1.17756 50 50 50
3.08709 3.84 -13.7929 50 50 50
2.86683 -0.2 -3.34494 50 50 50
2.61237 3.84 -1.50551 50 50 50
0 2.65908 -1.55083 50 50 50
-0.146882 -0.2 -4.79253 50 50 50
8.76943 -0.2 -2.19062 50 50 50
5.12 -1.19494 -2.35792 50 50 50
12.7719 15.3739 -5 50 50 50
0 3.78772 -5.42798 50 50 50
2.41733 3.84 -1.61602 50 50 50
5.12 3.66584 -1.72798 50 50 50
-8.88178e-16 12.9021 -23.066 50 50 50
2.63073 3.84 -1.45395 50 50 50
2.57827 3.84 -1.6259 50 50 50
0 1.03252 -1.47293 50 50 50
2.58445 3.84 -1.47758 50 50 50
-1.68523 -0.2 -1.52279 50 50 50
0 2.4373 -0.324378 50 50 50
2.53859 3.84 -1.47846 50 50 50
2.13331 -0.2 -1.33349 50 50 50
5.41907 -0.2 -6.37587 50 50 50
5.12 -8.78086 -4.37579 50 50 50
4.89798 3.84 -0.242327 50 50 50
1.91348 3.84 -5.05537 50 50 50
0 4.65768 -2.36318 50 50 50
5.27102 -2.21386 -5 50 50 50
2.84889 2.7976 -5 50 50 50
-4.44089e-16 7.25166 -0.888539 50 50 50
5.26836 -0.2 -0.936392 50 50 50
-2.40989 21.6174 -5 50 50 50
-2.20468 3.84 -3.96799 50 50 50
1.25784 3.84 -0.146164 50 50 50
0 14.6091 -0.0793938 50 50 50
3.94277 -0.2 -1.15241 50 50 50
5.12 2.37525 -4.1448 50 50 50
5.55112e-17 3.30671 -1.78716 50 50 50
5.12 2.29955 -5.97764 50 50 50
5.12 2.46476 -2.53283 50 50 50
1.84417 3.84 -3.68417 50 50 50
0.638783 3.84 -4.08195 50 50 50
0.494693 -1.83744 -5 50 50 50
5.12 4.60677 -2.54872 50 50 50
2.5278 -0.2 -1.3723 50 50 50
0.60104 -28.4452 -5 50 50 50
2.53328 -0.2 -1.5212 50 50 50
0 3.31137 -4.66921 50 50 50
6.39361 -0.2 -4.87456 50 50 50
5.12 2.04503 -2.58613 50 50 50
-2.56876 3.84 -4.91914 50 50 50
8.39253 2.31521 -5 50 50 50
2.26893 3.84 -5.16026 50 50 50
0 -51.8155 -8.46326 50 50 50
5.12 6.55839 -0.0357795 50 50 50
4.1743 0.697472 -5 50 50 50
0 2.55963 -1.52312 50 50 50
1.07669 3.84 -3.64302 50 50 50
2.87565 12.8468 -5 50 50 50
2.47549 -0.2 -6.00708 50 50 50
2.17713 3.84 -3.52187 50 50 50
2.56714 3.84 -1.49468 50 50 50
5.12 5.13524 -0.727152 50 50 50
2.45678 -0.2 -1.38658 50 50 50
0 1.53348 -3.13116 50 50 50
5.03573 0.350119 -5 50 50 50
0 4.96676 -3.33008 50 50 50
6.34676 3.84 -4.4986 50 50 50
0.868104 3.84 -5.26919 50 50 50
-1.98339 -2.26484 -5 50 50 50
4.25767 -0.2 -4.49899 50 50 50
5.12 104.974 -3.41244 50 50 50
0 2.62087 -0.696907 50 50 50
2.35588 3.84 -1.46586 50 50 50
0.112767 -0.2 -0.55254 50 50 50
1.25834 -0.2 -2.14284 50 50 50
5.12 0.59105 -2.81802 50 50 50
4.22321 -0.2 -0.939182 50 50 50
7.82898 3.93093 -5 50 50 50
-4.44089e-16 1.1446 -3.03098 50 50 50
0.686012 3.84 -5.06117 50 50 50
0 6.49964 -5.92653 50 50 50
4.87368 3.84 -6.61466 50 50 50
2.46663 3.84 -1.60465 50 50 50
2.40126 -0.2 -1.63008 50 50 50
5.12 10.4829 -7.27888 50 50 50
5.23704 -0.2 -0.316596 50 50 50
5.12 3.69167 -0.699869 50 50 50
1.9613 -0.2 -1.77048 50 50 50
1.54223 3.84 -2.17844 50 50 50
-15.7354 -0.2 -0.503057 50 50 50
1.69242 3.84 -4.99882 50 50 50
2.09542 10.2837 -5 50 50 50
4.52315 7.40855 -5 50 50 50
1.78271 -0.2 -1.43709 50 50 50
5.12 1.49533 -3.80786 50 50 50
2.54965 3.84 -1.49333 50 50 50
2.37309 3.84 -2.0672 50 50 50
5.12 3.05357 -0.523086 50 50 50
-4.13473 2.96042 -5 50 50 50
2.55176 3.84 -1.50473 50 50 50
0 48.0644 -4.98326 50 50 50
2.5771 3.84 -1.48049 50 50 50
3.7099 -0.2 -1.16725 50 50 50
2.58422 3.84 -1.72697 50 50 50
0.687329 3.84 -1.53476 50 50 50
5.12 7.87443 -11.1936 50 50 50
0 -3.06167 -0.891979 50 50 50
5.2906 -0.2 -3.76981 50 50 50
9.32444 19.4552 -5 50 50 50
2.51183 3.84 -1.52997 50 50 50
5.12 1.09533 -2.66277 50 50 50
-0.26595 -0.2 -1.01619 50 50 50
0.141171 -0.2 -4.09419 50 50 50
5.58697 3.84 -5.01687 50 50 50
0 2.73483 -0.680196 50 50 50
2.45486 3.84 -1.59953 50 50 50
5.15174 3.84 -7.43362 50 50 50
0 2.83247 -1.06001 50 50 50
5.13314 -51.334 -5 50 50 50
0 6.1017 -3.31193 50 50 50
4.85822 7.52808 -5 50 50 50
2.54798 3.84 -1.42688 50 50 50
-2.60344 3.84 -2.02369 50 50 50
2.37958 3.84 -0.669493 50 50 50
5.12 1.81702 -11.3197 50 50 50
5.12 3.89179 -3.1519 50 50 50
0 -2.0869 -3.88887 50 50 50
0 -0.201942 -3.39261 50 50 50
2.48754 -0.2 -5.02038 50 50 50
-1.16226 26.0689 -5 50 50 50
0.66602 3.84 -4.92772 50 50 50
0 0.0702495 -2.7228 50 50 50
-35.9032 3.84 -17.2615 50 50 50
5.12 2.62609 -5.16174 50 50 50
5.12 4.25233 -0.41501 50 50 50
5.12 -45.0529 -11.416 50 50 50
2.55548 -0.2 -1.33072 50 50 50
1.25418 2.06681 -5 50 50 50
-30.3593 -47.2606 -5 50 50 50
3.97011 3.80393 -5 50 50 50
-1.42027 -0.2 -4.22335 50 50 50
2.69301 3.84 -4.6929 50 50 50
5.12 3.29118 -3.17513 50 50 50
2.99288 4.78554 -5 50 50 50
-1.88749 -5.8276 -5 50 50 50
4.61218 16.7884 -5 50 50 50
0 -0.0203252 -2.34635 50 50 50
-3.51587 3.02816 -5 50 50 50
2.66007 3.84 -1.68468 50 50 50
0 6.59727 -1.68617 50 50 50
2.61821 24.1354 -5 50 50 50
4.95134 3.84 -4.76491 50 50 50
2.48409 3.84 -1.83174 50 50 50
1.38733 -0.2 -4.08393 50 50 50
2.88873 -0.2 -1.31756 50 50 50
-0.205357 2.08983 -5 50 50 50
2.62851 5.51118 -5 50 50 50
2.5619 3.84 -1.50362 50 50 50
0 2.71633 -0.892202 50 50 50
0 -9.15312 -1.48778 50 50 50
3.01545 -0.2 -0.684025 50 50 50
0 5.0389 -0.939003 50 50 50
-0.0238704 -0.2 -6.05919 50 50 50
3.43599 -0.2 -8.33384 50 50 50
5.32247 3.84 -18.9896 50 50 50
3.40551 0.969311 -5 50 50 50
0 0.274473 -1.72243 50 50 50
2.56128 3.84 -1.50377 50 50 50
3.44491 -0.2 -1.83811 50 50 50
0.996779 3.84 -3.81022 50 50 50
2.51118 3.84 -1.47715 50 50 50
5.12 5.68219 -1.52899 50 50 50
5.57387 8.18299 -5 50 50 50
0 3.84074 -4.78631 50 50 50
5.12 6.13198 -3.27496 50 50 50
5.12 0.616677 -4.6947 50 50 50
0 3.04471 -5.1393 50 50 50
2.60647 -0.2 -5.31426 50 50 50
5.12919 -0.2 -3.57029 50 50 50
-2.22045e-16 2.63074 -5.86143 50 50 50
4.66159 3.84 -4.20645 50 50 50
0 -6.79639 -18.902 50 50 50
0 2.73172 -10.507 50 50 50
5.35719 -0.2 -1.66899 50 50 50
4.98927 3.84 -0.0736391 50 50 50
2.57131 -0.2 -0.327125 50 50 50
5.12 1.58898 -2.47278 50 50 50
1.93035 -0.2 -4.98533 50 50 50
4.48571 -0.2 -1.94671 50 50 50
5.12 1.79758 -2.14371 50 50 50
5.16551 -2.98016 -5 50 50 50
0 2.52629 -2.64101 50 50 50
2.56123 3.84 -1.49961 50 50 50
0 3.12289 -1.07485 50 50 50
5.12 7.4922 -2.6582 50 50 50
2.19126 3.84 -0.225413 50 50 50
0 14.8596 -0.172883 50 50 50
4.71033 3.84 -2.81777 50 50 50
5.12 -4.40773 -4.62602 50 50 50
9.39465 4.32249 -5 50 50 50
2.60839 3.84 -1.4778 50 50 50
2.54561 3.84 -1.50647 50 50 50
1.61002 3.39116 -5 50 50 50
5.12 10.9304 -20.6499 50 50 50
5.12 4.0519 -3.05741 50 50 50
3.33895 3.84 -4.18537 50 50 50
2.56421 3.84 -1.49072 50 50 50
5.12 -0.210145 -2.02934 50 50 50
1.55088 1.37079 -5 50 50 50
0 -0.186386 -2.31251 50 50 50
2.5509 3.84 -1.50445 50 50 50
-0.667275 3.84 -5.31793 50 50 50
5.12 -0.149926 -1.14924 50 50 50
-1.96534 3.84 -2.86414 50 50 50
5.12 3.43491 -2.80271 50 50 50
0 -7.79647 -3.81984 50 50 50
2.10308 3.84 -4.98836 50 50 50
5.12 2.57391 -1.14968 50 50 50
-4.77031 7.5408 -5 50 50 50
2.54287 3.84 -1.456 50 50 50
5.12 5.71384 -2.58076 50 50 50
2.44987 -0.2 -1.61678 50 50 50
2.56121 3.84 -1.52177 50 50 50
-0.906133 3.84 -11.3802 50 50 50
2.23196 3.84 -1.09355 50 50 50
5.12 -0.0979058 -0.0149958 50 50 50
1.04744 -0.2 -1.70877 50 50 50
3.93862 -0.2 -5.01767 50 50 50
0.0909007 -3.49503 -5 50 50 50
0 -0.733985 -3.17914 50 50 50
0.492703 -1.30469 -5 50 50 50
5.12 8.4444 -0.931312 50 50 50
5.12 3.52569 -1.1073 50 50 50
-2.2153 -0.2 -4.97553 50 50 50
4.91156 -0.2 -5.10916 50 50 50
0 1.38111 -2.46629 50 50 50
5.12 3.05025 -2.92867 50 50 50
2.28689 -0.2 -1.82637 50 50 50
1.16947 -0.2 -3.72564 50 50 50
0 6.44449 -1.51291 50 50 50
5.25457 3.76951 -5 50 50 50
0.513542 1.93139 -5 50 50 50
0 0.852037 -3.26535 50 50 50
2.29349 7.67153 -5 50 50 50
0 9.60951 -1.42623 50 50 50
0 7.22462 -5.31917 50 50 50
2.61295 3.84 -1.54172 50 50 50
0 6.21232 -0.337449 50 50 50
0 2.19677 -1.91245 50 50 50
-1.25669 -0.2 -1.12511 50 50 50
1.68042 -0.2 -1.98976 50 50 50
2.57699 3.84 -1.51013 50 50 50
9.66156 3.84 -10.6561 50 50 50
5.12 2.89055 -1.63774 50 50 50
3.54616 6.43128 -5 50 50 50
-3.34087 -0.2 -9.71707 50 50 50
2.54688 3.84 -1.46571 50 50 50
5.12 3.58117 -2.11459 50 50 50
2.53273 3.84 -1.51115 50 50 50
2.56546 3.84 -1.51677 50 50 50
5.12 6.97763 -3.78413 50 50 50
0.824181 -0.2 -7.09793 50 50 50
-0.70919 2.6275 -5 50 50 50
2.57924 3.84 -1.52843 50 50 50
5.13901 3.84 -4.91812 50 50 50
0.173312 -0.2 -3.16963 50 50 50
4.62944 -0.2 -0.228567 50 50 50
2.56271 3.84 -1.51142 50 50 50
2.10338 23.7603 -5 50 50 50
4.80277 -0.2 -0.00812758 50 50 50
0 -4.84042 -2.19663 50 50 50
5.13257 -0.2 -1.65681 50 50 50
0.966167 3.84229 -5 50 50 50
1.6123 5.74294 -5 50 50 50
5.12 -0.196413 -1.6987 50 50 50
2.78229 3.84 -4.58664 50 50 50
2.7409 0.758824 -5 50 50 50
2.55275 3.84 -1.62253 50 50 50
5.12 3.79848 -20.7221 50 50 50
0 -1.24652 -3.00539 50 50 50
2.531 3.84 -1.52894 50 50 50
3.84196 3.84 -3.70589 50 50 50
2.54936 3.84 -1.45419 50 50 50
0 3.41088 -0.779081 50 50 50
12.1414 2.93435 -5 50 50 50
4.94177 3.84 -1.21008 50 50 50
2.45767 3.84 -1.52987 50 50 50
2.8965 3.84 -0.957538 50 50 50
0 2.79553 -1.59744 50 50 50
5.12 8.50539 -0.801022 50 50 50
4.59621 2.08561 -5 50 50 50
1.58241 -0.2 -0.444119 50 50 50
2.53622 3.84 -1.56849 50 50 50
5.12 0.787566 -4.09479 50 50 50
1.42681 -0.2 -1.41786 50 50 50
0 -0.946372 -1.99796 50 50 50
0 -2.21306 -4.99853 50 50 50
2.5751 3.84 -1.53022 50 50 50
2.56766 3.84 -1.49702 50 50 50
0.0752835 5.3669 -5 50 50 50
1.6168 3.84 -0.421653 50 50 50
2.598 3.84 -1.51616 50 50 50
5.12 2.99042 -1.46942 50 50 50
5.08256 -0.2 -34.8066 50 50 50
5.52018 -0.2 -2.83032 50 50 50
2.49553 -0.2 -1.42097 50 50 50
5.12 3.36166 -4.83591 50 50 50
0 0.659893 -1.07827 50 50 50
-0.0225672 3.84 -3.87805 50 50 50
2.57458 3.84 -1.44203 50 50 50
5.20945 3.84 -4.17258 50 50 50
-0.0123845 -0.2 -0.305008 50 50 50
5.52153 -0.2 -0.78681 50 50 50
5.12 3.22461 -4.6692 50 50 50
-1.60072 -0.2 -2.87892 50 50 50
2.512 3.84 -1.52787 50 50 50
15.7631 6.08943 -5 50 50 50
-1.12161 -1.25677 -5 50 50 50
0 3.76925 -0.942674 50 50 50
0 8.54783 -2.6227 50 50 50
6.20689 -0.2 -2.31915 50 50 50
13.742 2.16063 -5 50 50 50
5.12 2.39507 -1.38972 50 50 50
-0.290239 0.454324 -5 50 50 50
5.12 2.65808 -0.972168 50 50 50
0 3.5293 -0.131442 50 50 50
0.457231 -0.2 -1.72193 50 50 50
-1.81261 3.1853 -5 50 50 50
4.70266 -0.2 -2.08531 50 50 50
2.54992 3.84 -1.50394 50 50 50
3.46495 -0.2 -6.46417 50 50 50
0.117941 -0.2 -1.75825 50 50 50
2.56886 3.84 -1.54037 50 50 50
-3.17035 3.84 -7.10401 50 50 50
0 3.30992 -2.74366 50 50 50
5.14739 -0.2 -1.78513 50 50 50
2.5485 3.84 -1.48029 50 50 50
4.99971 3.84 -4.97813 50 50 50
-2.32771 3.84 -2.69033 50 50 50
1.77026 3.84 -3.46395 50 50 50
5.11578 3.84 -4.95809 50 50 50
4.88264 16.8682 -5 50 50 50
4.08005 -0.2 -0.933462 50 50 50
2.58637 3.84 -1.46677 50 50 50
2.98572 23.0759 -5 50 50 50
5.28038 3.84 -4.44302 50 50 50
-2.70292 1.97302 -5 50 50 50
4.44089e-16 12.0162 -7.28701 50 50 50
2.56209 3.84 -1.50092 50 50 50
5.12 5.58904 -4.75234 50 50 50
5.12 11.7019 -5.8599 50 50 50
0 3.47479 -5.22684 50 50 50
0 8.27686 -3.2061 50 50 50
-1.65885 24.5805 -5 50 50 50
2.84847 -0.2 -1.06843 50 50 50
2.60601 -0.2 -1.5527 50 50 50
2.21234 -0.125081 -5 50 50 50
5.12 10.1584 -3.34551 50 50 50
0 94.4488 -23.0057 50 50 50
-1.38778e-17 2.36175 -5.08894 50 50 50
0.762235 -0.2 -6.87412 50 50 50
3.58833 -0.2 -4.02061 50 50 50
4.58801 1.17624 -5 50 50 50
-0.0514638 -1.27631 -5 50 50 50
0 2.42361 -7.46153 50 50 50
3.17248 3.39206 -5 50 50 50
1.87593 60.077 -5 50 50 50
5.12 3.79713 -0.425719 50 50 50
2.77556e-17 -2.12712 -0.0434604 50 50 50
-7.43531 -20.9088 -5 50 50 50
1.27824 -0.2 -23.904 50 50 50
5.12 15.7195 -0.489788 50 50 50
-2.5842 -0.2 -1.82609 50 50 50
-7.74862 3.61412 -5 50 50 50
2.59018 3.84 -1.52096 50 50 50
2.5633 3.84 -1.53697 50 50 50
5.12 -0.528905 -1.29078 50 50 50
2.78172 -0.2 -0.969454 50 50 50
5.12 1.87249 -4.59095 50 50 50
5.12 1.62104 -4.01614 50 50 50
5.12 1.38872 -0.981762 50 50 50
0 16.484 -3.41649 50 50 50
-8.395 3.84 -5.40461 50 50 50
0.362478 3.84 -4.76467 50 50 50
2.53207 3.84 -1.50843 50 50 50
2.58053 3.84 -1.51656 50 50 50
5.23956 -0.2 -6.4147 50 50 50
3.79257 3.84 -4.99998 50 50 50
2.55735 3.84 -1.50151 50 50 50
2.58326 3.84 -1.49024 50 50 50
2.56641 3.84 -1.48877 50 50 50
2.54457 3.84 -1.52561 50 50 50
0.920015 -0.2 -0.0272206 50 50 50
2.5187 3.84 -1.46301 50 50 50
-0.549027 3.84 -16.846 50 50 50
0 2.82581 -0.99384 50 50 50
5.12 8.49416 -1.68774 50 50 50
2.55459 3.84 -1.51789 50 50 50
-4.44089e-16 18.4248 -1.66798 50 50 50
1.54292 3.55984 -5 50 50 50
0 2.1661 -2.53115 50 50 50
0 1.80371 -3.5052 50 50 50
0 1.20406 -2.71659 50 50 50
4.93781 2.94813 -5 50 50 50
2.59132 3.84 -0.502006 50 50 50
0.747669 -0.2 -6.64669 50 50 50
4.64256 3.84 -2.9779 50 50 50
0 1.57635 -2.40672 50 50 50
5.12 4.035 -2.44177 50 50 50
4.74693 -0.2 -5.14947 50 50 50
5.79867 -0.00907605 -5 50 50 50
0 7.60786 -1.25049 50 50 50
3.95157 3.84 -1.41445 50 50 50
2.23113 -0.2 -3.51114 50 50 50
0.319701 -35.581 -5 50 50 50
1.64442 3.84 -4.61879 50 50 50
-0.621398 3.84 -2.69247 50 50 50
1.27236 -0.2 -16.4923 50 50 50
2.60269 -0.2 -1.58211 50 50 50
1.03337 6.06276 -5 50 50 50
3.85051 -0.2 -0.965703 50 50 50
4.86577 3.84 -2.20238 50 50 50
2.57944 3.84 -1.49614 50 50 50
2.56171 3.84 -1.49953 50 50 50
-2.63135 -0.2 -1.23112 50 50 50
2.67234 1.28907 -5 50 50 50
1.07428 4.90791 -5 50 50 50
-6.93889e-18 -13.0118 -4.97372 50 50 50
-2.1288 -0.2 -8.20359 50 50 50
6.37569 3.84 -0.153297 50 50 50
5.23567 3.84 -4.21817 50 50 50
3.6384 3.84 -1.05585 50 50 50
1.13287 3.84 -1.51552 50 50 50
5.12 9.43223 -8.93384 50 50 50
1.1445 -0.2 -3.04216 50 50 50
2.55372 3.84 -1.49291 50 50 50
2.64481 3.84 -1.59241 50 50 50
0 42.0607 -3.31572 50 50 50
0 3.72211 -2.77366 50 50 50
5.12 8.70407 -0.753252 50 50 50
0.68258 -0.2 -2.24444 50 50 50
4.96834 3.84 -4.46067 50 50 50
2.5629 3.84 -1.5211 50 50 50
5.12 5.46233 -1.68203 50 50 50
2.07689 -0.2 -3.10347 50 50 50
3.06265 -0.2 -1.16158 50 50 50
0.871246 -10.5988 -5 50 50 50
2.54556 3.84 -1.42636 50 50 50
1.38785 -0.2 -2.52026 50 50 50
5.07463 -0.2 -0.483402 50 50 50
2.61411 3.84 -1.49397 50 50 50
0.216958 3.84 -7.59779 50 50 50
5.12 -1.6785 -5.30631 50 50 50
5.12 -3.71426 -5.78494 50 50 50
1.25054 3.84 -4.7937 50 50 50
5.12 12.1149 -3.54293 50 50 50
0 1.92096 -3.62176 50 50 50
-1.32808 3.84 -2.16523 50 50 50
4.46981 -0.161165 -5 50 50 50
2.57292 3.84 -1.4468 50 50 50
2.56292 3.84 -1.48395 50 50 50
5.12 3.59905 -2.59196 50 50 50
5.12 -0.211115 -8.93857 50 50 50
2.52512 3.84 -1.52367 50 50 50
2.58548 3.84 -1.51153 50 50 50
5.84332 3.84 -4.42172 50 50 50
4.44089e-16 -0.175324 -3.58783 50 50 50
4.97898 2.33138 -5 50 50 50
0.584828 -0.2 -4.73203 50 50 50
3.72258 15.3327 -5 50 50 50
1.35069 3.84 -3.50037 50 50 50
2.54608 3.84 -1.51559 50 50 50
0 1.656 -0.659409 50 50 50
2.5594 3.84 -1.49991 50 50 50
2.58691 3.84 -1.54206 50 50 50
0 50.5627 -3.96739 50 50 50
2.55658 3.84 -1.49461 50 50 50
-65.2693 -0.2 -31.9447 50 50 50
-0.0333621 -0.266066 -5 50 50 50
2.54284 3.84 -1.48261 50 50 50
2.58717 3.84 -1.47799 50 50 50
0 4.53519 -4.92506 50 50 50
-4.94605 -0.2 -17.5822 50 50 50
2.53749 3.84 -1.49505 50 50 50
-3.59368 -0.151154 -5 50 50 50
3.4901 57.3249 -5 50 50 50
10.305 3.84 -7.04145 50 50 50
0 2.11565 -0.1244 50 50 50
2.66032 3.84 -1.54721 50 50 50
2.94454 7.39575 -5 50 50 50
6.28011 4.17165 -5 50 50 50
2.55357 3.84 -1.50123 50 50 50
5.12 0.235414 -0.944281 50 50 50
0 2.99603 -3.71377 50 50 50
0 1.80402 -1.8743 50 50 50
1.46036 3.82062 -5 50 50 50
9.79966 2.16264 -5 50 50 50
5.12 0.439321 -2.53807 50 50 50
2.5624 3.84 -1.49955 50 50 50
0.0418879 7.41983 -5 50 50 50
1.70298 -0.2 -24.1366 50 50 50
5.12 5.45472 -1.60276 50 50 50
7.8487 -0.2 -6.61721 50 50 50
2.55404 3.84 -1.5095 50 50 50
0.609082 -0.2 -0.0691761 50 50 50
0 100.505 -6.42565 50 50 50
2.54773 3.84 -1.49006 50 50 50
0.138057 3.84 -3.38817 50 50 50
0 -9.43455 -4.35555 50 50 50
4.19465 -0.2 -4.07998 50 50 50
-4.44089e-16 1.74013 -2.43631 50 50 50
4.77014 3.84 -2.03359 50 50 50
0 2.47521 -2.94587 50 50 50
2.58108 3.84 -1.49635 50 50 50
0.68045 1.96703 -5 50 50 50
0 0.909028 -0.0782839 50 50 50
1.86609 3.84 -1.33597 50 50 50
2.49864 3.84 -1.47714 50 50 50
4.41925 -0.2 -4.46513 50 50 50
2.51511 3.84 -1.52175 50 50 50
0 0.341244 -3.42083 50 50 50
2.53397 -0.2 -0.854158 50 50 50
-5.67609 3.84 -9.09022 50 50 50
4.76397 3.84 -7.20501 50 50 50
0.214578 3.84 -0.182418 50 50 50
0 81.1383 -2.87738 50 50 50
-0.112928 -0.2 -2.11184 50 50 50
5.12 1.6116 -2.55906 50 50 50
2.51948 3.84 -1.43141 50 50 50
5.39073 3.84 -5.26292 50 50 50
0.346682 3.84 -5.14157 50 50 50
3.49948 3.01009 -5 50 50 50
4.39293 5.5469 -5 50 50 50
0 21.76 -14.4457 50 50 50
0.140102 3.68474 -5 50 50 50
5.12 2.5583 -2.04001 50 50 50
1.11022e-16 3.74634 -5.81296 50 50 50
2.65438 3.84 -1.615 50 50 50
5.12 5.79531 -3.67929 50 50 50
-7.12721 3.44344 -5 50 50 50
2.5527 3.84 -1.49314 50 50 50
6.81908 -0.2 -3.42501 50 50 50
-3.25464 4.70499 -5 50 50 50
21.8284 -0.2 -6.35869 50 50 50
3.65181 3.84 -4.64442 50 50 50
2.23013 -0.2 -0.271954 50 50 50
5.12 2.99716 -2.15032 50 50 50
0.364171 -0.2 -2.94037 50 50 50
2.52721 7.26779 -5 50 50 50
0 1.47785 -4.593 50 50 50
-2.92222 -0.2 -6.58751 50 50 50
2.01653 3.84 -1.59682 50 50 50
0 -72.1327 -28.4565 50 50 50
4.76708 3.38815 -5 50 50 50
0.00032401 -0.2 -4.86733 50 50 50
1.40859 -0.2 -3.18416 50 50 50
0 4.24425 -3.99652 50 50 50
1.78866 3.84 -3.99104 50 50 50
5.12 5.32054 -3.69031 50 50 50
2.58199 3.84 -1.49635 50 50 50
0.371566 -0.2 -2.33937 50 50 50
0 -83.9864 -3.69849 50 50 50
5.12 0.784497 -2.1597 50 50 50
3.77622 -2.78466 -5 50 50 50
-9.28558 -0.2 -3.55464 50 50 50
-0.340847 6.48504 -5 50 50 50
2.57699 3.84 -1.51919 50 50 50
2.5735 3.84 -1.5168 50 50 50
1.7187 -0.2 -1.27969 50 50 50
5.12 -2.68074 -4.89908 50 50 50
0.0104746 3.84 -4.57686 50 50 50
2.62635 3.84 -1.47733 50 50 50
5.63794 -0.2 -0.682238 50 50 50
2.55344 3.84 -1.50641 50 50 50
2.57477 3.84 -1.52153 50 50 50
1.20864 24.2711 -5 50 50 50
5.01449 -0.2 -0.228602 50 50 50
2.64392 3.84 -1.38297 50 50 50
0.333726 32.5205 -5 50 50 50
0 3.10264 -4.90377 50 50 50
0.91547 4.16165 -5 50 50 50
3.88386 -1.35336 -5 50 50 50
2.6525 3.84 -1.36296 50 50 50
4.25347 1.5432 -5 50 50 50
0.120221 19.3142 -5 50 50 50
2.8428 -0.2 -1.7031 50 50 50
1.43698 -0.2 -4.52314 50 50 50
0 4.87167 -5.40444 50 50 50
0 4.10438 -2.7281 50 50 50
2.55439 -0.2 -0.23427 50 50 50
2.55518 3.84 -1.49391 50 50 50
6.11473 -30.512 -5 50 50 50
5.10128 -0.2 -6.72491 50 50 50
-2.22045e-16 3.3899 -0.478985 50 50 50
-0.3207 53.3479 -5 50 50 50
2.4078 3.84 -1.70728 50 50 50
2.16172 3.84 -1.80155 50 50 50
2.55749 3.84 -1.50748 50 50 50
0 3.08135 -3.75744 50 50 50
6.93952 3.84 -2.39192 50 50 50
-0.844423 3.84 -5.97073 50 50 50
2.5055 3.84 -4.87388 50 50 50
5.78835 13.1616 -5 50 50 50
0.0105764 -0.2 -3.87525 50 50 50
2.55906 3.84 -1.49952 50 50 50
3.79229 3.84 -4.13792 50 50 50
2.57395 3.84 -1.50013 50 50 50
5.12 -64.2811 -44.9046 50 50 50
5.12 -10.8608 -7.00658 50 50 50
5.12 2.30482 -7.2044 50 50 50
5.14995 3.84 -5.02198 50 50 50
0 1.17388 -5.71522 50 50 50
-0.0174748 3.84 -0.778293 50 50 50
0 0.21949 -10.5104 50 50 50
1.77895 -0.2 -4.89857 50 50 50
2.58014 3.84 -1.48356 50 50 50
0 -0.440064 -0.607464 50 50 50
5.12 4.17353 -5.91371 50 50 50
4.07013 -0.2 -1.0591 50 50 50
8.8647 -0.2 -3.68786 50 50 50
-0.0928093 1.21533 -5 50 50 50
5.12 -0.760657 -3.34986 50 50 50
-0.525284 33.0099 -5 50 50 50
5.12 3.84285 -5.73026 50 50 50
2.96136 -0.2 -2.14153 50 50 50
0 0.974869 -1.74065 50 50 50
5.12 -1.47582 -2.04245 50 50 50
5.12 1.40992 -4.3575 50 50 50
5.12 3.73928 -4.9406 50 50 50
0 0.237661 -4.31013 50 50 50
5.12 2.27014 -0.990576 50 50 50
5.97767 -0.2 -2.72407 50 50 50
2.5573 3.84 -1.50448 50 50 50
0 3.74926 -0.43165 50 50 50
2.53301 13.2864 -5 50 50 50
0 5.21162 -2.80098 50 50 50
1.439 -0.0363353 -5 50 50 50
-0.0937027 2.59038 -5 50 50 50
0 4.45409 -3.85536 50 50 50
0 0.033827 -5.82955 50 50 50
1.81796 3.84 -7.39572 50 50 50
2.55134 3.84 -1.49977 50 50 50
2.73632 -0.2 -1.11509 50 50 50
0.21467 21.9329 -5 50 50 50
2.24383 3.84 -10.6584 50 50 50
5.12 7.1621 -2.47898 50 50 50
4.92143 -0.2 -0.210149 50 50 50
1.18037 3.84 -0.885034 50 50 50
2.3645 3.84 -1.57267 50 50 50
4.68035 3.84 -7.99145 50 50 50
0.956087 -0.2 -1.06454 50 50 50
2.30948 -0.2 -0.99832 50 50 50
2.53311 3.84 -1.54275 50 50 50
5.12 22.4604 -64.6665 50 50 50
2.59544 3.84 -1.52547 50 50 50
5.12 -0.38786 -3.72408 50 50 50
0 6.55088 -62.2969 50 50 50
2.46471 -0.2 -15.1564 50 50 50
0 2.5928 -6.45262 50 50 50
1.11486 1.3147 -5 50 50 50
3.25053 -0.2 -0.166361 50 50 50
1.7664 7.12048 -5 50 50 50
0 2.62384 -2.44897 50 50 50
0 0.723855 -2.20485 50 50 50
5.12 -1.63194 -6.71424 50 50 50
-0.539548 -0.2 -1.76393 50 50 50
2.57148 3.84 -2.10877 50 50 50
5.12 2.32976 -1.07145 50 50 50
5.12 23.2658 -17.878 50 50 50
5.12 32.1084 -2.22051 50 50 50
5.12 10.6679 -2.11443 50 50 50
0 -0.713595 -4.49602 50 50 50
2.52833 3.84 -1.52251 50 50 50
0 1.92138 -4.67262 50 50 50
2.42699 -0.2 -1.61926 50 50 50
5.12 -0.248279 -2.11874 50 50 50
2.58513 3.84 -1.45679 50 50 50
-0.535971 3.84 -10.7073 50 50 50
2.56762 3.84 -1.48947 50 50 50
6.94285 -0.2 -2.29484 50 50 50
2.07154 -0.191493 -5 50 50 50
5.12 3.11692 -0.764209 50 50 50
2.55357 3.84 -1.51597 50 50 50
5.12705 -0.2 -0.821051 50 50 50
5.12 3.05285 -2.76902 50 50 50
22.6181 3.96206 -5 50 50 50
2.68644 3.84 -1.44051 50 50 50
2.58428 3.84 -1.51884 50 50 50
5.9698 -0.2 -4.80315 50 50 50
-21.7996 3.84 -48.3894 50 50 50
5.12 1.29561 -2.20292 50 50 50
0 2.69527 -1.61788 50 50 50
1.65577 3.84 -7.09982 50 50 50
-5.06108 3.84 -2.57305 50 50 50
11.2689 3.84 -14.7019 50 50 50
2.50482 3.84 -1.21109 50 50 50
2.55956 3.84 -1.49839 50 50 50
2.55543 3.84 -1.44948 50 50 50
-2.94479 4.60422 -5 50 50 50
1.86497 3.84 -11.5653 50 50 50
0 2.08911 -2.03424 50 50 50
2.71039 3.84 -1.33309 50 50 50
-0.127008 6.14805 -5 50 50 50
0 9.37433 -19.7195 50 50 50
2.56292 3.84 -1.49358 50 50 50
2.83309 3.84 -0.640427 50 50 50
2.56279 3.84 -1.48875 50 50 50
3.56631 -0.2 -4.10396 50 50 50
6.14418 -0.2 -0.239424 50 50 50
1.97075 3.70522 -5 50 50 50
2.56479 3.84 -1.48484 50 50 50
0 63.237 -10.8455 50 50 50
2.60814 3.84 -1.53578 50 50 50
5.12 3.01593 -3.82868 50 50 50
0 2.413 -1.5351 50 50 50
5.12 1.10786 -0.787817 50 50 50
5.5122 -0.2 -2.2386 50 50 50
2.63869 3.84 -1.72602 50 50 50
0 -3.15898 -3.72254 50 50 50
4.05636 -6.90817 -5 50 50 50
5.12 5.07573 -5.46328 50 50 50
3.82156 -0.2 -0.885618 50 50 50
2.40481 3.84 -1.74002 50 50 50
5.12 2.92082 -3.03307 50 50 50
3.85779 6.79954 -5 50 50 50
4.47293 -0.2 -0.625907 50 50 50
0 2.43327 -1.20198 50 50 50
2.61109 3.84 -1.41424 50 50 50
6.57415 -0.2 -9.89369 50 50 50
5.12 3.24138 -5.83531 50 50 50
-8.81767e-06 3.84 -3.34804 50 50 50
2.60316 3.84 -1.50713 50 50 50
0 15.676 -3.31761 50 50 50
4.7958 3.84 -3.75267 50 50 50
2.15295 3.84 -34.6078 50 50 50
2.22354 -0.2 -3.23345 50 50 50
5.12 -16.3713 -4.92703 50 50 50
5.12 3.52059 -3.0726 50 50 50
2.69491 3.84 -3.57824 50 50 50
2.55934 3.84 -1.49503 50 50 50
28.4827 -0.2 -75.771 50 50 50
5.12 2.23737 -0.105505 50 50 50
0.14726 29.743 -5 50 50 50
3.34955 7.64907 -5 50 50 50
12.6518 -0.2 -3.03318 50 50 50
5.12 23.8764 -10.4369 50 50 50
2.99911 3.20499 -5 50 50 50
2.56301 3.84 -1.50697 50 50 50
2.71516 3.72632 -5 50 50 50
0.265313 4.21493 -5 50 50 50
2.53619 0.811216 -5 50 50 50
2.41767 3.84 -1.52823 50 50 50
0 81.639 -0.7594 50 50 50
-11.3825 0.609528 -5 50 50 50
2.35217 -0.2 -1.15313 50 50 50
0 21.7487 -10.5974 50 50 50
0 2.48954 -3.04393 50 50 50
5.12 3.25739 -1.55827 50 50 50
-0.00353946 3.84 -1.76793 50 50 50
0 -1.05313 -10.0082 50 50 50
0 -7.35659 -1.45003 50 50 50
0.273981 -5.36942 -5 50 50 50
0 0.910706 -1.86709 50 50 50
5.12 2.53017 -5.90036 50 50 50
5.12 -0.698343 -5.35192 50 50 50
2.63031 3.84 -1.53041 50 50 50
2.49765 3.84 -1.46793 50 50 50
0 -14.5776 -5.93544 50 50 50
4.51877 38.6861 -5 50 50 50
5.05421 3.84 -2.08728 50 50 50
2.41372 3.84 -1.56623 50 50 50
1.96651 3.84 -7.58036 50 50 50
2.53764 3.84 -1.52861 50 50 50
2.28787 -0.2 -3.67941 50 50 50
1.87689 3.84 -0.572139 50 50 50
5.12 36.5036 -9.66023 50 50 50
2.54458 3.84 -1.46365 50 50 50
2.58957 3.84 -1.495 50 50 50
2.54941 -0.2 -1.67272 50 50 50
5.93531 -0.2 -0.971387 50 50 50
-0.0865621 10.6945 -5 50 50 50
2.56036 3.84 -1.50153 50 50 50
3.76474 -1.97864 -5 50 50 50
-2.34761 -0.2 -0.602945 50 50 50
0 1.76183 -0.430965 50 50 50
2.41355 3.84 -5.42153 50 50 50
5.14534 -0.2 -0.334925 50 50 50
2.16279 -0.2 -1.88979 50 50 50
0 3.29552 -12.1195 50 50 50
9.2679 4.34973 -5 50 50 50
2.5607 3.84 -1.50583 50 50 50
1.14442 -0.2 -2.30641 50 50 50
2.55355 3.84 -1.56143 50 50 50
0 1.41372 -1.26558 50 50 50
3.30654 -0.2 -0.116066 50 50 50
2.85656 -0.2 -1.4253 50 50 50
2.6115 3.84 -1.45759 50 50 50
5.12 0.587747 -2.25782 50 50 50
2.85657 3.84 -5.06891 50 50 50
-0.269959 -0.2 -2.8871 50 50 50
0 3.61564 -2.95049 50 50 50
2.55899 3.84 -1.49937 50 50 50
5.12 3.51437 -1.46982 50 50 50
0 4.88377 -2.09135 50 50 50
0 3.2868 -0.896826 50 50 50
2.54689 3.84 -1.51388 50 50 50
0.707927 3.54349 -5 50 50 50
-8.78597 25.8178 -5 50 50 50
4.74996 3.25141 -5 50 50 50
0.238055 -0.2 -6.3139 50 50 50
5.12 11.5969 -1.97398 50 50 50
0 2.75341 -0.192211 50 50 50
2.5559 3.84 -1.52049 50 50 50
2.58152 3.84 -1.47176 50 50 50
3.98546 3.84 -8.38468 50 50 50
5.12 4.4519 -2.05403 50 50 50
0 1.21642 -1.99229 50 50 50
2.99466 3.84 -1.37871 50 50 50
2.58644 3.84 -1.46367 50 50 50
5.0883 -0.2 -3.66717 50 50 50
0.339774 2.33536 -5 50 50 50
6.51023 0.4348 -5 50 50 50
5.12 1.09978 -2.78476 50 50 50
2.55992 3.84 -1.50052 50 50 50
1.19824 3.84 -1.44745 50 50 50
5.12 3.60312 -1.84647 50 50 50
2.39109 3.84 -4.95752 50 50 50
5.08609 3.84 -4.07926 50 50 50
0 8.41629 -2.62111 50 50 50
-3.12667 3.30003 -5 50 50 50
0 -0.259709 -10.555 50 50 50
-1.75233 -0.2 -7.60961 50 50 50
2.58935 -0.2 -1.23269 50 50 50
0 -5.00589 -4.52459 50 50 50
5.12 2.40522 -4.87019 50 50 50
5.12 8.50934 -1.1464 50 50 50
6.84276 2.56482 -5 50 50 50
5.12 8.22566 -8.76509 50 50 50
2.56621 3.84 -1.5009 50 50 50
4.58957 3.84 -0.847608 50 50 50
9.57602 -0.958184 -5 50 50 50
5.12 2.51798 -3.0866 50 50 50
2.53769 3.84 -1.57547 50 50 50
2.57152 3.84 -1.50425 50 50 50
5.12 2.6244 -1.27327 50 50 50
-4.6608 1.46856 -5 50 50 50
0.417652 3.84 -12.7784 50 50 50
8.03301 -0.2 -6.2548 50 50 50
-1.84216 1.02292 -5 50 50 50
2.9642 3.84 -1.43668 50 50 50
2.51038 -0.2 -3.21656 50 50 50
3.83033 -0.2 -4.96863 50 50 50
5.12 2.7386 -4.52034 50 50 50
-0.542614 3.84 -2.68488 50 50 50
4.79712 1.79713 -5 50 50 50
0 1.87316 -3.03263 50 50 50
5.12 3.32995 -2.75389 50 50 50
5.12 -0.853986 -3.05734 50 50 50
2.55039 3.84 -1.4994 50 50 50
5.12 10.3188 -1.31867 50 50 50
0 7.25849 -0.432948 50 50 50
2.83806 -0.2 -2.39595 50 50 50
3.8558 -11.4429 -5 50 50 50
0.651329 4.09842 -5 50 50 50
0.430162 3.84 -5.0076 50 50 50
0 1.38159 -0.875842 50 50 50
5.15147 3.84 -3.22599 50 50 50
-5.23243 -0.2 -8.22752 50 50 50
3.96941 16.0383 -5 50 50 50
1.46487 -0.2 -1.28224 50 50 50
5.12 0.719866 -4.28416 50 50 50
5.12 2.66766 -0.653377 50 50 50
0.264686 3.84 -2.96412 50 50 50
-4.25346 1.87976 -5 50 50 50
0.0403484 -0.2 -4.035 50 50 50
7.81327 3.84 -3.20729 50 50 50
0 4.66327 -0.838896 50 50 50
5.12 14.0116 -5.66338 50 50 50
5.3586 -0.2 -3.07519 50 50 50
2.59875 3.84 -1.44754 50 50 50
5.12 -7.82347 -10.2211 50 50 50
0.206609 11.3094 -5 50 50 50
2.56256 3.84 -1.58528 50 50 50
1.19545 -0.2 -1.78329 50 50 50
8.32189 7.88964 -5 50 50 50
2.41595 3.84 -8.58209 50 50 50
1.18502 3.82907 -5 50 50 50
2.65192 -0.2 -0.96285 50 50 50
5.12 4.52808 -4.00057 50 50 50
-0.261775 -0.2 -4.81037 50 50 50
1.50493 3.98775 -5 50 50 50
8.91932 7.49818 -5 50 50 50
5.12 3.30598 -2.00123 50 50 50
6.10309 3.84 -4.35204 50 50 50
2.6727 3.84 -1.43762 50 50 50
-6.71658 3.84 -8.33904 50 50 50
2.54737 3.84 -1.50164 50 50 50
-0.940861 3.84 -4.51474 50 50 50
4.43681 3.84 -0.274427 50 50 50
0 5.54146 -2.30601 50 50 50
5.12 9.13057 -2.96605 50 50 50
2.66767 3.84 -1.47176 50 50 50
0 0.238409 -4.04382 50 50 50
5.12 2.30029 -5.00054 50 50 50
0 0.558265 -29.794 50 50 50
0.00718215 3.84 -3.39747 50 50 50
0 -0.47552 -3.44553 50 50 50
0 3.06683 -1.75404 50 50 50
5.12 9.97561 -24.605 50 50 50
2.53485 3.84 -1.57953 50 50 50
3.12847 3.84 -1.89485 50 50 50
4.52386 0.630764 -5 50 50 50
5.12 5.07462 -3.14372 50 50 50
0 7.28477 -3.66937 50 50 50
2.3832 3.84 -4.10968 50 50 50
0 58.4992 -4.91686 50 50 50
2.60359 3.84 -1.49658 50 50 50
1.59114 3.84 -4.94152 50 50 50
5.12 1.92394 -1.72618 50 50 50
2.31702 3.97404 -5 50 50 50
7.04242 3.84 -5.49076 50 50 50
2.38139 2.08866 -5 50 50 50
0 18.197 -0.91068 50 50 50
-4.21295 -0.2 -4.19297 50 50 50
4.11963 -0.2 -1.83977 50 50 50
2.54921 3.84 -1.4853 50 50 50
0.0480651 -0.2 -7.43376 50 50 50
6.02106 20.5341 -5 50 50 50
6.01515 -9.99481 -5 50 50 50
6.31146 3.84 -2.66059 50 50 50
2.10288 4.72071 -5 50 50 50
3.9897 -0.2 -0.316692 50 50 50
3.36649 2.56248 -5 50 50 50
4.18575 -0.2 -0.727329 50 50 50
2.98196 2.38765 -5 50 50 50
5.12 1.45376 -3.15167 50 50 50
0 -14.2394 -16.0031 50 50 50
5.12 -59.5057 -7.13089 50 50 50
2.54797 3.84 -1.53197 50 50 50
1.38778e-17 0.0648383 -5.81274 50 50 50
-0.557903 -0.2 -3.9821 50 50 50
1.59866 3.84 -7.16422 50 50 50
0 -4.52238 -4.97278 50 50 50
3.4502 16.8785 -5 50 50 50
0 -2.01392 -1.87844 50 50 50
5.12 4.12122 -0.14211 50 50 50
2.55349 2.81985 -5 50 50 50
0 0.921014 -3.64484 50 50 50
5.11071 3.84 -1.2369 50 50 50
1.23325 15.5512 -5 50 50 50
11.2335 3.84 -2.82843 50 50 50
0 1.43345 -0.0390934 50 50 50
5.33662 17.2552 -5 50 50 50
-0.713737 -26.6824 -5 50 50 50
3.28895 5.27467 -5 50 50 50
5.15884 3.84 -3.95605 50 50 50
5.12 -0.492312 -4.52089 50 50 50
3.52182 -0.2 -0.543922 50 50 50
3.79781 -0.2 -0.900043 50 50 50
0 1.77604 -2.16442 50 50 50
-1.56359 -0.2 -3.04179 50 50 50
2.60013 3.84 -21.9376 50 50 50
5.12 7.5226 -2.44781 50 50 50
0 1.89283 -4.0514 50 50 50
2.60643 3.84 -1.45702 50 50 50
2.55802 3.84 -1.46477 50 50 50
0.907956 -0.2 -3.87705 50 50 50
0 2.70704 -4.11766 50 50 50
2.51771 3.84 -1.49792 50 50 50
5.12 5.11004 -5.53858 50 50 50
2.93573 3.84 -1.90861 50 50 50
0.00718147 8.93376 -5 50 50 50
0 -12.4771 -5.43733 50 50 50
5.12 6.72427 -3.5597 50 50 50
6.84877 3.84 -2.52516 50 50 50
2.57379 3.84 -1.51273 50 50 50
0 3.39705 -2.16721 50 50 50
2.6468 3.84 -1.52254 50 50 50
3.33096 0.0709014 -5 50 50 50
-0.138616 -0.2 -1.18121 50 50 50
2.54396 3.84 -1.70717 50 50 50
-0.0147096 -0.197126 -5 50 50 50
2.55279 3.84 -1.51345 50 50 50
1.07778 3.84 -5.81467 50 50 50
6.30744 -0.2 -1.90382 50 50 50
3.23847 3.84 -1.39383 50 50 50
1.7714 -35.964 -5 50 50 50
2.56001 3.84 -1.49995 50 50 50
2.56667 3.84 -1.50836 50 50 50
2.95793 3.84 -9.24099 50 50 50
4.19647 -0.2 -5.04386 50 50 50
2.55546 3.84 -1.50527 50 50 50
5.51648 3.84 -2.22249 50 50 50
0 27.2444 -2.40918 50 50 50
0 3.21536 -2.57839 50 50 50
-5.41274 -0.2 -2.58084 50 50 50
0 6.61881 -1.36639 50 50 50
2.6738 3.84 -1.52 50 50 50
2.47784 3.84 -1.61391 50 50 50
5.12 -2.07059 -2.96921 50 50 50
-1.0338 11.9799 -5 50 50 50
-0.0200638 -0.161233 -5 50 50 50
4.75595 -0.2 -4.60488 50 50 50
1.65677 3.84 -0.798911 50 50 50
4.01146 -0.2 -5.1444 50 50 50
1.34354 -0.2 -1.76113 50 50 50
-0.650661 1.39333 -5 50 50 50
5.12 4.18641 -1.4548 50 50 50
5.12 0.114675 -2.35627 50 50 50
5.3423 -0.2 -0.0672429 50 50 50
0.00352962 3.84 -0.458658 50 50 50
2.67218 -0.2 -2.63407 50 50 50
5.12 0.0165407 -0.158985 50 50 50
-0.853404 -2.16553 -5 50 50 50
-1.80309 -17.8617 -5 50 50 50
2.72221 -0.2 -2.29499 50 50 50
0 2.39354 -2.11787 50 50 50
2.15432 3.84 -2.34669 50 50 50
5.12 3.95146 -1.69631 50 50 50
2.58683 3.84 -1.5052 50 50 50
0 0.655033 -3.81851 50 50 50
2.55634 3.84 -1.50912 50 50 50
1.41987 -0.2 -4.14835 50 50 50
-20.2683 3.84 -3.53604 50 50 50
2.54751 3.84 -1.52629 50 50 50
6.95441 3.04899 -5 50 50 50
2.5989 3.84 -1.45234 50 50 50
1.06258 3.84 -0.729532 50 50 50
5.11392 3.84 -12.8776 50 50 50
10.3094 -0.319081 -5 50 50 50
5.24997 3.84 -37.8919 50 50 50
1.35286 -0.2 -5.4243 50 50 50
0 19.9619 -8.7564 50 50 50
0 3.15123 -1.20971 50 50 50
5.12 -0.493289 -4.19881 50 50 50
1.23198 3.84 -2.39272 50 50 50
2.54419 3.84 -1.53052 50 50 50
2.58694 3.84 -1.508 50 50 50
5.06748 -0.2 -2.22303 50 50 50
0 2.02735 -0.877611 50 50 50
0.450445 2.69211 -5 50 50 50
1.16 3.84 -4.11288 50 50 50
2.81167 -0.2 -1.68997 50 50 50
2.63593 3.84 -1.615 50 50 50
4.74401 1.76779 -5 50 50 50
5.10455 2.4255 -5 50 50 50
7.29334 -0.2 -1.69989 50 50 50
0 11.4563 -2.29155 50 50 50
5.15377 3.84 -2.29057 50 50 50
0.0305517 3.14475 -5 50 50 50
2.57012 3.84 -1.49976 50 50 50
6.07598 3.84 -19.4509 50 50 50
-0.0607527 -0.2 -32.34 50 50 50
2.56156 3.84 -1.49175 50 50 50
2.61206 3.84 -1.50751 50 50 50
0 -2.59858 -0.59573 50 50 50
0.117854 -13.188 -5 50 50 50
5.12 2.1431 -0.751276 50 50 50
1.67037 2.56224 -5 50 50 50
-1.4142 3.84 -16.1563 50 50 50
5.12 29.1338 -5.23692 50 50 50
2.4701 3.84 -1.3975 50 50 50
-2.70436 -0.2 -4.22327 50 50 50
0 17.4322 -0.326414 50 50 50
-0.00193004 3.84 -0.242803 50 50 50
0 5.6047 -1.27184 50 50 50
4.80258 -0.2 -0.151283 50 50 50
3.19282 3.84 -4.16999 50 50 50
-4.44089e-16 0.319946 -0.244525 50 50 50
0 -2.98462 -6.36131 50 50 50
0 2.74415 -1.57328 50 50 50
5.12 3.49344 -3.36679 50 50 50
5.12 8.97064 -4.72764 50 50 50
5.12 1.38207 -1.6814 50 50 50
2.56825 3.84 -1.46732 50 50 50
3.18881 1.93048 -5 50 50 50
3.97853 -0.2 -0.164128 50 50 50
7.14712 3.84 -2.90841 50 50 50
5.1014 -3.43379 -5 50 50 50
-2.42496 -0.2 -7.51455 50 50 50
3.33811 1.99893 -5 50 50 50
5.12 -21.3951 -12.6205 50 50 50
3.21279 -0.2 -2.47881 50 50 50
0 5.88399 -16.1852 50 50 50
2.44919 3.84 -1.44324 50 50 50
0.20396 -0.2 -3.25385 50 50 50
5.12 1.16957 -7.94897 50 50 50
1.13803 -0.2 -2.16818 50 50 50
-1.11022e-16 5.72394 -13.4607 50 50 50
2.6201 3.84 -1.46922 50 50 50
0.655733 -5.29152 -5 50 50 50
1.3852 -0.2 -1.98547 50 50 50
5.12 0.502621 -13.7719 50 50 50
0 4.35237 -1.85193 50 50 50
0.0303201 -0.2 -6.45848 50 50 50
1.2235 7.84537 -5 50 50 50
0 1.71013 -0.668803 50 50 50
11.4837 -0.044 -5 50 50 50
8.20494 3.84 -4.91834 50 50 50
-40.2998 33.0409 -5 50 50 50
-0.0836301 -0.84722 -5 50 50 50
5.12 3.84414 -2.66907 50 50 50
-1.84738 -6.74243 -5 50 50 50
0 1.01843 -4.51704 50 50 50
1.47637 3.84 -0.896544 50 50 50
2.55034 3.84 -1.50145 50 50 50
5.12 -72.639 -12.3229 50 50 50
9.82457 3.84 -4.66574 50 50 50
4.07439 1.55178 -5 50 50 50
1.15868 3.84 -3.43397 50 50 50
1.51115 23.1821 -5 50 50 50
2.24954 0.281883 -5 50 50 50
1.51926 3.84 -4.74627 50 50 50
0 2.82839 -3.94638 50 50 50
0 1.82973 -5.36875 50 50 50
8.34966 -0.2 -5.32806 50 50 50
-34.5925 -4.87541 -5 50 50 50
4.96895 3.84 -5.33987 50 50 50
0 0.926892 -1.05314 50 50 50
5.12 1.21637 -5.26465 50 50 50
6.70618 3.84 -2.18855 50 50 50
5.12 2.11962 -2.4332 50 50 50
5.12 1.85276 -0.668229 50 50 50
2.07632 3.84 -1.61303 50 50 50
-0.881061 1.24894 -5 50 50 50
2.56006 3.84 -1.50159 50 50 50
2.5602 3.84 -1.43948 50 50 50
3.63367 7.01394 -5 50 50 50
2.54735 3.84 -1.49981 50 50 50
5.12 2.21366 -1.05121 50 50 50
2.56194 3.84 -1.50044 50 50 50
0 3.65528 -3.9788 50 50 50
0 0.450794 -2.7075 50 50 50
2.62814 3.84 -1.39818 50 50 50
5.12 -0.308909 -3.02269 50 50 50
2.0824 -0.2 -1.59529 50 50 50
0 7.79269 -0.813231 50 50 50
2.61344 3.84 -1.51113 50 50 50
3.5859 -0.2 -1.49401 50 50 50
5.12 5.83302 -1.23253 50 50 50
0 -8.46919 -4.97431 50 50 50
0 1.03074 -3.10097 50 50 50
5.12 0.928073 -7.95444 50 50 50
-0.0517241 2.17505 -5 50 50 50
5.12 -26.1015 -3.79849 50 50 50
5.12 -1.09267 -4.38356 50 50 50
0 0.425926 -3.02867 50 50 50
0 4.31072 -8.94871 50 50 50
2.64732 3.84 -1.49699 50 50 50
-4.44089e-16 12.1022 -3.00049 50 50 50
2.57182 3.84 -1.51334 50 50 50
2.19888 -0.2 -4.8196 50 50 50
4.00409 -0.2 -4.14458 50 50 50
3.81586 0.0806651 -5 50 50 50
-0.0412807 -0.2 -0.306898 50 50 50
2.58876 3.84 -1.41911 50 50 50
0 3.7087 -2.00677 50 50 50
2.34165 3.84 -1.10603 50 50 50
2.37866 -0.2 -1.66289 50 50 50
5.13126 -0.680456 -5 50 50 50
5.12 7.84958 -1.82643 50 50 50
5.12 3.96949 -2.838 50 50 50
2.69826 -0.2 -3.90896 50 50 50
0 2.8104 -1.88913 50 50 50
2.56426 3.84 -1.49993 50 50 50
1.50469 2.60686 -5 50 50 50
-1.54606 -4.30003 -5 50 50 50
5.12 3.57712 -1.3966 50 50 50
2.9068 -0.2 -2.86815 50 50 50
2.04494 3.84 -0.979349 50 50 50
1.79279 3.84 -4.5531 50 50 50
2.26724 3.84 -3.77567 50 50 50
0.0852396 3.84 -2.82853 50 50 50
-4.92935 3.84 -3.69186 50 50 50
0 6.05229 -4.88084 50 50 50
2.54259 3.84 -1.51728 50 50 50
4.78679 -0.2 -4.05799 50 50 50
-5.60835 8.55383 -5 50 50 50
2.56045 3.84 -1.50034 50 50 50
2.41674 3.84 -1.54404 50 50 50
3.96678 3.84 -2.61373 50 50 50
0.892957 6.26538 -5 50 50 50
1.2833 3.84 -2.18414 50 50 50
3.23933 7.65868 -5 50 50 50
5.25584 -0.2 -8.48204 50 50 50
2.5504 3.84 -1.50487 50 50 50
2.74713 -0.2 -1.61683 50 50 50
-8.71644 -0.2 -37.8502 50 50 50
3.28632 -0.2 -3.5883 50 50 50
5.12 4.10896 -1.01042 50 50 50
2.56526 3.84 -1.51604 50 50 50
2.55321 -0.2 -1.50133 50 50 50
5.12 -4.69286 -2.95035 50 50 50
-0.0301054 3.84 -0.806098 50 50 50
4.60157 3.18876 -5 50 50 50
2.05303 -0.2 -2.16288 50 50 50
2.47135 -0.2 -5.95957 50 50 50
0 0.519704 -1.06483 50 50 50
7.1959 -0.2 -5.26204 50 50 50
2.41948 3.84 -1.55107 50 50 50
4.34674 4.35215 -5 50 50 50
-6.21745 -0.2 -0.464854 50 50 50
4.01043 65.0814 -5 50 50 50
2.09491 -0.2 -1.51718 50 50 50
5.12 15.0097 -1.55081 50 50 50
1.30278 -0.203634 -5 50 50 50
3.95629 3.84 -3.01481 50 50 50
2.79444 3.84 -4.99011 50 50 50
-3.10609 -3.77589 -5 50 50 50
-1.41147e-05 -0.2 -1.23757 50 50 50
3.29834 3.87835 -5 50 50 50
4.81198 3.84 -0.846384 50 50 50
5.12 16.6068 -2.17333 50 50 50
0 -9.77604 -4.98744 50 50 50
2.55999 3.84 -1.49412 50 50 50
0.575583 -0.2 -1.04706 50 50 50
0 -0.247046 -2.58421 50 50 50
5.12 4.61688 -4.91707 50 50 50
2.5509 3.84 -1.53117 50 50 50
4.88196 -2.39603 -5 50 50 50
2.22045e-16 16.0952 -3.09341 50 50 50
3.21038 -0.2 -5.74107 50 50 50
1.46748 2.72397 -5 50 50 50
0.217491 -0.2 -3.30767 50 50 50
5.12 1.81672 -4.21144 50 50 50
2.29253 3.84 -1.43486 50 50 50
3.20303 1.18304 -5 50 50 50
0.791496 -0.2 -2.94656 50 50 50
4.33712 -0.2 -8.09162 50 50 50
5.12 17.3331 -10.317 50 50 50
2.87161 -0.2 -0.29349 50 50 50
5.12 5.94654 -4.00271 50 50 50
2.72374 3.84 -1.2311 50 50 50
5.09744 1.53237 -5 50 50 50
2.55154 3.84 -1.50904 50 50 50
2.53123 3.84 -1.49979 50 50 50
2.40998 -0.2 -1.66449 50 50 50
5.11647 3.84 -2.47508 50 50 50
5.02023 -0.2 -0.311421 50 50 50
-2.38093 3.84 -1.65298 50 50 50
3.83338 -0.2 -4.62475 50 50 50
-1.44239 -0.2 -4.99474 50 50 50
2.56178 3.84 -1.49895 50 50 50
1.41506 -0.2 -2.15011 50 50 50
-0.833649 -0.2 -0.717202 50 50 50
2.35538 -0.2 -0.17527 50 50 50
-1.4763 3.84 -14.6975 50 50 50
2.9213 3.84 -1.65277 50 50 50
4.2378 3.84 -5.38447 50 50 50
0 2.29496 -2.55897 50 50 50
5.12 2.72406 -4.97109 50 50 50
2.55709 3.84 -1.49562 50 50 50
38.7376 27.1717 -5 50 50 50
-1.22821 3.84 -6.36441 50 50 50
5.12 -4.785 -5.88585 50 50 50
3.25321 3.65417 -5 50 50 50
4.80713 -0.2 -3.77974 50 50 50
0 -1.35249 -4.55945 50 50 50
7.58254 5.34764 -5 50 50 50
0.441901 8.03768 -5 50 50 50
5.12 -1.14448 -2.18281 50 50 50
4.6217 -0.2 -2.81231 50 50 50
0.895584 3.84 -0.726724 50 50 50
3.63614 18.8733 -5 50 50 50
2.56637 3.84 -1.45931 50 50 50
2.57961 3.84 -1.49137 50 50 50
-1.93456 3.84 -31.9378 50 50 50
2.23115 -0.2 -1.78742 50 50 50
2.98508 6.15513 -5 50 50 50
5.15904 3.84 -3.04098 50 50 50
-0.0710649 2.08229 -5 50 50 50
0 17.3537 -4.583 50 50 50
2.61069 3.84 -1.49448 50 50 50
0 17.5786 -6.27336 50 50 50
2.60638 3.84 -1.49406 50 50 50
2.05346 3.84 -3.85112 50 50 50
7.32855 2.25588 -5 50 50 50
2.51902 3.84 -1.55078 50 50 50
1.25473 -0.2 -2.04648 50 50 50
5.12 3.0365 -1.50712 50 50 50
1.62185 3.84 -2.01662 50 50 50
4.56709 3.84 -4.76826 50 50 50
0.932463 -0.2 -3.50047 50 50 50
5.12 -2.79993 -8.2354 50 50 50
2.55656 3.84 -1.50664 50 50 50
5.32536 -0.2 -0.921033 50 50 50
5.12 -5.78117 -4.54991 50 50 50
2.54617 3.84 -1.26825 50 50 50
-0.826954 3.84 -5.23724 50 50 50
2.77527 3.84 -1.5081 50 50 50
0 0.0308366 -2.94129 50 50 50
2.76752 -0.2 -0.544858 50 50 50
2.28072 3.84 -2.41159 50 50 50
4.05578 3.84 -0.636509 50 50 50
2.11606 0.461919 -5 50 50 50
-0.000887691 -0.2 -2.36719 50 50 50
1.67496 -0.2 -1.43691 50 50 50
2.53301 3.84 -1.51848 50 50 50
4.75763 -0.2 -4.7746 50 50 50
5.12 4.71428 -8.75148 50 50 50
0.508745 1.7747 -5 50 50 50
-0.155316 -0.2 -2.07224 50 50 50
2.50884 3.84 -1.4742 50 50 50
0.388734 -0.2 -1.09372 50 50 50
14.1929 3.84 -8.72114 50 50 50
-1.02024 3.84 -0.9758 50 50 50
2.53715 3.84 -1.5121 50 50 50
15.3994 1.77176 -5 50 50 50
3.72551 -0.2 -1.15489 50 50 50
0 -0.320234 -0.326317 50 50 50
-0.0466496 7.54323 -5 50 50 50
1.90189 -0.2 -2.33065 50 50 50
-2.39877 -0.2 -3.2648 50 50 50
0 0.234691 -1.45281 50 50 50
4.9638 0.00445423 -5 50 50 50
0 3.79873 -8.19701 50 50 50
5.12 3.94889 -5.02013 50 50 50
2.55379 3.84 -1.50784 50 50 50
5.12 -2.43411 -2.24811 50 50 50
5.12 -0.00139392 -0.328281 50 50 50
5.12 19.8108 -3.56728 50 50 50
2.56882 -0.2 -1.20436 50 50 50
5.12 10.5489 -2.44343 50 50 50
0.439386 3.32559 -5 50 50 50
-0.776469 3.84 -2.17398 50 50 50
5.12 -79.5231 -1.00939 50 50 50
2.46258 3.84 -1.56221 50 50 50
0 0.284889 -0.20283 50 50 50
2.35081 3.84 -1.65215 50 50 50
0 -0.193919 -3.83092 50 50 50
5.12 5.64222 -3.23086 50 50 50
4.78991 3.84 -4.65663 50 50 50
5.12 2.09273 -4.99305 50 50 50
0.328021 -0.2 -1.71822 50 50 50
5.20798 -0.2 -4.16115 50 50 50
-0.444145 3.84 -4.86534 50 50 50
-2.77556e-17 3.87244 -1.62695 50 50 50
2.54974 3.84 -1.58869 50 50 50
2.15113 3.84 -1.57532 50 50 50
-1.48509 3.97145 -5 50 50 50
0 1.49337 -3.32252 50 50 50
5.12 3.65672 -4.40268 50 50 50
9.41957 3.84 -3.86455 50 50 50
5.59221 -0.2 -6.97508 50 50 50
2.53883 3.84 -1.48871 50 50 50
0 5.10244 -4.93229 50 50 50
0 -4.42174 -4.70979 50 50 50
2.55848 3.84 -1.49092 50 50 50
0 1.32027 -2.98902 50 50 50
-4.71301 -1.37661 -5 50 50 50
5.01301 0.0954665 -5 50 50 50
0 4.16404 -1.80645 50 50 50
5.12 33.8634 -23.2062 50 50 50
3.18718 3.84 -4.81676 50 50 50
5.12097 3.84 -0.73813 50 50 50
6.68716 2.2023 -5 50 50 50
0.0176688 -0.589541 -5 50 50 50
3.74541 3.84 -2.91422 50 50 50
5.12 1.22207 -1.88 50 50 50
4.22624 -0.2 -4.44811 50 50 50
0 0.461543 -1.27685 50 50 50
0.71917 -9.96875 -5 50 50 50
5.12 -0.512673 -1.47513 50 50 50
2.55548 -0.2 -3.18951 50 50 50
-13.6166 -0.2 -2.64054 50 50 50
1.03822 2.89878 -5 50 50 50
2.55723 3.84 -1.46436 50 50 50
3.15624 3.84 -2.93762 50 50 50
2.50884 -0.2 -2.06024 50 50 50
0.22068 -0.2 -1.52017 50 50 50
-1.96318 3.84 -4.23257 50 50 50
2.56155 3.84 -1.51822 50 50 50
1.05501 -0.2 -2.49768 50 50 50
2.55291 3.84 -1.51008 50 50 50
9.66612 6.72407 -5 50 50 50
5.13294 -0.2 -1.5278 50 50 50
0 -0.305927 -0.821737 50 50 50
18.6049 0.645862 -5 50 50 50
5.13687 3.84 -0.339532 50 50 50
2.15804 -0.2 -1.21455 50 50 50
5.12 -73.3472 -17.814 50 50 50
5.84856 -0.155764 -5 50 50 50
5.12 3.85893 -1.39874 50 50 50
-18.4233 3.84 -13.2313 50 50 50
2.54591 3.84 -1.51438 50 50 50
5.12 8.51831 -2.8271 50 50 50
6.01358 -1.32758 -5 50 50 50
2.70085 3.84 -1.96001 50 50 50
2.00612 2.70217 -5 50 50 50
4.98409 3.84 -1.88081 50 50 50
0 -10.5596 -0.745145 50 50 50
-12.6339 3.84 -4.75024 50 50 50
5.12 3.6983 -1.60174 50 50 50
3.23785 3.84 -1.70777 50 50 50
3.31496 -0.2 -3.01694 50 50 50
0 2.7114 -0.451286 50 50 50
5.12 4.87691 -4.98254 50 50 50
2.49761 3.84 -1.56627 50 50 50
2.90003 3.84 -14.823 50 50 50
-3.27302 3.84 -5.10827 50 50 50
2.27164 3.84 -0.644447 50 50 50
0.766349 -0.2 -1.4631 50 50 50
2.68944 3.84 -1.48232 50 50 50
5.12 -0.266171 -7.82233 50 50 50
2.0001 -0.196788 -5 50 50 50
1.62447 -0.2 -0.154381 50 50 50
5.12 21.3298 -2.52735 50 50 50
